184.000000 -440.000000 64.000000
184.000000 -440.000000 64.000000
182.000692 -440.000000 63.947387
180.001384 -440.000000 63.894773
178.002076 -440.000000 63.842160
176.002769 -440.000000 63.789547
174.003461 -440.000000 63.736933
172.004153 -440.000000 63.684320
170.004845 -440.000000 63.631706
168.005537 -440.000000 63.579093
166.006229 -440.000000 63.526480
164.006922 -440.000000 63.473866
162.007614 -440.000000 63.421253
160.008306 -440.000000 63.368640
158.008998 -440.000000 63.316026
156.009690 -440.000000 63.263413
154.010382 -440.000000 63.210800
152.011075 -440.000000 63.158186
150.011767 -440.000000 63.105573
148.012459 -440.000000 63.052959
146.013151 -440.000000 63.000346
144.013843 -440.000000 62.947733
142.014535 -440.000000 62.895119
140.015228 -440.000000 62.842506
138.015920 -440.000000 62.789893
136.016612 -440.000000 62.737279
134.017304 -440.000000 62.684666
132.017996 -440.000000 62.632053
130.018688 -440.000000 62.579439
128.019381 -440.000000 62.526826
126.020073 -440.000000 62.474212
124.020765 -440.000000 62.421599
122.021457 -440.000000 62.368986
120.022149 -440.000000 62.316372
118.022841 -440.000000 62.263759
116.023533 -440.000000 62.211146
114.024226 -440.000000 62.158532
112.024918 -440.000000 62.105919
110.025610 -440.000000 62.053306
108.026302 -440.000000 62.000692
106.026994 -440.000000 61.948079
104.027686 -440.000000 61.895465
102.028379 -440.000000 61.842852
100.029071 -440.000000 61.790239
98.029763 -440.000000 61.737625
96.030455 -440.000000 61.685012
94.031147 -440.000000 61.632399
92.031839 -440.000000 61.579785
90.032532 -440.000000 61.527172
88.033224 -440.000000 61.474559
86.033916 -440.000000 61.421945
84.034608 -440.000000 61.369332
82.035300 -440.000000 61.316718
80.035992 -440.000000 61.264105
78.036685 -440.000000 61.211492
76.037377 -440.000000 61.158878
74.038069 -440.000000 61.106265
72.038761 -440.000000 61.053652
70.039453 -440.000000 61.001038
68.040145 -440.000000 60.948425
66.040838 -440.000000 60.895812
64.041530 -440.000000 60.843198
62.042222 -440.000000 60.790585
60.042914 -440.000000 60.737971
58.043606 -440.000000 60.685358
56.044298 -440.000000 60.632745
54.044990 -440.000000 60.580131
52.045683 -440.000000 60.527518
50.046375 -440.000000 60.474905
48.047067 -440.000000 60.422291
46.047759 -440.000000 60.369678
44.048451 -440.000000 60.317065
42.049143 -440.000000 60.264451
40.049836 -440.000000 60.211838
38.050528 -440.000000 60.159224
36.051220 -440.000000 60.106611
34.051912 -440.000000 60.053998
32.000000 -440.000000 60.000000
32.000000 -440.000000 60.000000
32.000000 -441.997789 59.905986
32.000000 -443.995578 59.811973
32.000000 -445.993367 59.717959
32.000000 -447.991157 59.623946
32.000000 -449.988946 59.529932
32.000000 -451.986735 59.435918
32.000000 -453.984524 59.341905
32.000000 -455.982313 59.247891
32.000000 -457.980102 59.153878
32.000000 -459.977891 59.059864
32.000000 -461.975681 58.965850
32.000000 -463.973470 58.871837
32.000000 -465.971259 58.777823
32.000000 -467.969048 58.683810
32.000000 -469.966837 58.589796
32.000000 -471.964626 58.495782
32.000000 -473.962415 58.401769
32.000000 -475.960204 58.307755
32.000000 -477.957994 58.213741
32.000000 -479.955783 58.119728
32.000000 -481.953572 58.025714
32.000000 -483.951361 57.931701
32.000000 -485.949150 57.837687
32.000000 -487.946939 57.743673
32.000000 -489.944728 57.649660
32.000000 -491.942518 57.555646
32.000000 -493.940307 57.461633
32.000000 -495.938096 57.367619
32.000000 -497.935885 57.273605
32.000000 -499.933674 57.179592
32.000000 -501.931463 57.085578
32.000000 -503.929252 56.991565
32.000000 -505.927042 56.897551
32.000000 -507.924831 56.803537
32.000000 -509.922620 56.709524
32.000000 -511.920409 56.615510
32.000000 -513.918198 56.521497
32.000000 -515.915987 56.427483
32.000000 -517.913776 56.333469
32.000000 -519.911566 56.239456
32.000000 -521.909355 56.145442
32.000000 -523.907144 56.051429
32.000000 -525.904933 55.957415
32.000000 -527.902722 55.863401
32.000000 -529.900511 55.769388
32.000000 -531.898300 55.675374
32.000000 -533.896090 55.581360
32.000000 -535.893879 55.487347
32.000000 -537.891668 55.393333
32.000000 -539.889457 55.299320
32.000000 -541.887246 55.205306
32.000000 -543.885035 55.111292
32.000000 -545.882824 55.017279
32.000000 -547.880613 54.923265
32.000000 -549.878403 54.829252
32.000000 -551.876192 54.735238
32.000000 -553.873981 54.641224
32.000000 -555.871770 54.547211
32.000000 -557.869559 54.453197
32.000000 -559.867348 54.359184
32.000000 -561.865137 54.265170
32.000000 -563.862927 54.171156
32.000000 -565.860716 54.077143
32.000000 -567.858505 53.983129
32.000000 -569.856294 53.889116
32.000000 -571.854083 53.795102
32.000000 -573.851872 53.701088
32.000000 -575.849661 53.607075
32.000000 -577.847451 53.513061
32.000000 -579.845240 53.419048
32.000000 -581.843029 53.325034
32.000000 -583.840818 53.231020
32.000000 -585.838607 53.137007
32.000000 -587.836396 53.042993
32.000000 -589.834185 52.948980
32.000000 -591.831975 52.854966
32.000000 -593.829764 52.760952
32.000000 -595.827553 52.666939
32.000000 -597.825342 52.572925
32.000000 -599.823131 52.478911
32.000000 -601.820920 52.384898
32.000000 -603.818709 52.290884
32.000000 -605.816498 52.196871
32.000000 -607.814288 52.102857
32.000000 -609.812077 52.008843
32.000000 -611.809866 51.914830
32.000000 -613.807655 51.820816
32.000000 -615.805444 51.726803
32.000000 -617.803233 51.632789
32.000000 -619.801022 51.538775
32.000000 -621.798812 51.444762
32.000000 -623.796601 51.350748
32.000000 -625.794390 51.256735
32.000000 -627.792179 51.162721
32.000000 -629.789968 51.068707
32.000000 -631.787757 50.974694
32.000000 -633.785546 50.880680
32.000000 -635.783336 50.786667
32.000000 -637.781125 50.692653
32.000000 -639.778914 50.598639
32.000000 -641.776703 50.504626
32.000000 -643.774492 50.410612
32.000000 -645.772281 50.316599
32.000000 -647.770070 50.222585
32.000000 -649.767860 50.128571
32.000000 -651.765649 50.034558
32.000000 -653.763438 49.940544
32.000000 -655.761227 49.846530
32.000000 -657.759016 49.752517
32.000000 -659.756805 49.658503
32.000000 -661.754594 49.564490
32.000000 -663.752384 49.470476
32.000000 -665.750173 49.376462
32.000000 -667.747962 49.282449
32.000000 -669.745751 49.188435
32.000000 -671.743540 49.094422
32.000000 -673.741329 49.000408
32.000000 -675.739118 48.906394
32.000000 -677.736907 48.812381
32.000000 -679.734697 48.718367
32.000000 -681.732486 48.624354
32.000000 -683.730275 48.530340
32.000000 -685.728064 48.436326
32.000000 -687.725853 48.342313
32.000000 -689.723642 48.248299
32.000000 -691.721431 48.154286
32.000000 -693.719221 48.060272
32.000000 -695.717010 47.966258
32.000000 -697.714799 47.872245
32.000000 -699.712588 47.778231
32.000000 -701.710377 47.684218
32.000000 -703.708166 47.590204
32.000000 -705.705955 47.496190
32.000000 -707.703745 47.402177
32.000000 -709.701534 47.308163
32.000000 -711.699323 47.214150
32.000000 -713.697112 47.120136
32.000000 -715.694901 47.026122
32.000000 -717.692690 46.932109
32.000000 -719.690479 46.838095
32.000000 -721.688269 46.744081
32.000000 -723.686058 46.650068
32.000000 -725.683847 46.556054
32.000000 -727.681636 46.462041
32.000000 -729.679425 46.368027
32.000000 -731.677214 46.274013
32.000000 -733.675003 46.180000
32.000000 -735.672792 46.085986
32.000000 -737.670582 45.991973
32.000000 -739.668371 45.897959
32.000000 -741.666160 45.803945
32.000000 -743.663949 45.709932
32.000000 -745.661738 45.615918
32.000000 -747.659527 45.521905
32.000000 -749.657316 45.427891
32.000000 -751.655106 45.333877
32.000000 -753.652895 45.239864
32.000000 -755.650684 45.145850
32.000000 -757.648473 45.051837
32.000000 -759.646262 44.957823
32.000000 -761.644051 44.863809
32.000000 -763.641840 44.769796
32.000000 -765.639630 44.675782
32.000000 -767.637419 44.581769
32.000000 -769.635208 44.487755
32.000000 -771.632997 44.393741
32.000000 -773.630786 44.299728
32.000000 -775.628575 44.205714
32.000000 -777.626364 44.111700
32.000000 -780.000000 44.000000
32.000000 -780.000000 44.000000
33.999113 -779.950435 43.966957
35.998225 -779.900870 43.933914
37.997338 -779.851306 43.900870
39.996451 -779.801741 43.867827
41.995563 -779.752176 43.834784
43.994676 -779.702611 43.801741
45.993789 -779.653047 43.768698
47.992901 -779.603482 43.735655
49.992014 -779.553917 43.702611
51.991127 -779.504352 43.669568
53.990239 -779.454787 43.636525
55.989352 -779.405223 43.603482
57.988465 -779.355658 43.570439
59.987577 -779.306093 43.537395
61.986690 -779.256528 43.504352
63.985803 -779.206964 43.471309
65.984915 -779.157399 43.438266
67.984028 -779.107834 43.405223
69.983141 -779.058269 43.372179
71.982253 -779.008704 43.339136
73.981366 -778.959140 43.306093
75.980479 -778.909575 43.273050
77.979591 -778.860010 43.240007
79.978704 -778.810445 43.206964
81.977817 -778.760881 43.173920
83.976930 -778.711316 43.140877
85.976042 -778.661751 43.107834
87.975155 -778.612186 43.074791
89.974268 -778.562621 43.041748
91.973380 -778.513057 43.008704
93.972493 -778.463492 42.975661
95.971606 -778.413927 42.942618
97.970718 -778.364362 42.909575
99.969831 -778.314798 42.876532
101.968944 -778.265233 42.843489
103.968056 -778.215668 42.810445
105.967169 -778.166103 42.777402
107.966282 -778.116538 42.744359
109.965394 -778.066974 42.711316
111.964507 -778.017409 42.678273
113.963620 -777.967844 42.645229
115.962732 -777.918279 42.612186
117.961845 -777.868715 42.579143
119.960958 -777.819150 42.546100
121.960070 -777.769585 42.513057
123.959183 -777.720020 42.480014
125.958296 -777.670455 42.446970
127.957408 -777.620891 42.413927
129.956521 -777.571326 42.380884
131.955634 -777.521761 42.347841
133.954746 -777.472196 42.314798
135.953859 -777.422632 42.281754
137.952972 -777.373067 42.248711
139.952084 -777.323502 42.215668
141.951197 -777.273937 42.182625
143.950310 -777.224372 42.149582
145.949422 -777.174808 42.116538
147.948535 -777.125243 42.083495
149.947648 -777.075678 42.050452
151.946760 -777.026113 42.017409
153.945873 -776.976549 41.984366
155.944986 -776.926984 41.951323
157.944098 -776.877419 41.918279
159.943211 -776.827854 41.885236
161.942324 -776.778289 41.852193
163.941436 -776.728725 41.819150
165.940549 -776.679160 41.786107
167.939662 -776.629595 41.753063
169.938774 -776.580030 41.720020
171.937887 -776.530466 41.686977
173.937000 -776.480901 41.653934
175.936112 -776.431336 41.620891
177.935225 -776.381771 41.587848
179.934338 -776.332207 41.554804
181.933451 -776.282642 41.521761
183.932563 -776.233077 41.488718
185.931676 -776.183512 41.455675
187.930789 -776.133947 41.422632
189.929901 -776.084383 41.389588
191.929014 -776.034818 41.356545
193.928127 -775.985253 41.323502
195.927239 -775.935688 41.290459
197.926352 -775.886124 41.257416
199.925465 -775.836559 41.224372
201.924577 -775.786994 41.191329
203.923690 -775.737429 41.158286
205.922803 -775.687864 41.125243
207.921915 -775.638300 41.092200
209.921028 -775.588735 41.059157
211.920141 -775.539170 41.026113
213.919253 -775.489605 40.993070
215.918366 -775.440041 40.960027
217.917479 -775.390476 40.926984
219.916591 -775.340911 40.893941
221.915704 -775.291346 40.860897
223.914817 -775.241781 40.827854
225.913929 -775.192217 40.794811
227.913042 -775.142652 40.761768
229.912155 -775.093087 40.728725
231.911267 -775.043522 40.695682
233.910380 -774.993958 40.662638
235.909493 -774.944393 40.629595
237.908605 -774.894828 40.596552
239.907718 -774.845263 40.563509
241.906831 -774.795698 40.530466
243.905943 -774.746134 40.497422
245.905056 -774.696569 40.464379
247.904169 -774.647004 40.431336
249.903281 -774.597439 40.398293
251.902394 -774.547875 40.365250
253.901507 -774.498310 40.332207
255.900619 -774.448745 40.299163
257.899732 -774.399180 40.266120
259.898845 -774.349615 40.233077
261.897957 -774.300051 40.200034
263.897070 -774.250486 40.166991
265.896183 -774.200921 40.133947
267.895295 -774.151356 40.100904
269.894408 -774.101792 40.067861
271.893521 -774.052227 40.034818
273.892633 -774.002662 40.001775
275.891746 -773.953097 39.968731
277.890859 -773.903532 39.935688
279.889971 -773.853968 39.902645
281.889084 -773.804403 39.869602
283.888197 -773.754838 39.836559
285.887310 -773.705273 39.803516
287.886422 -773.655709 39.770472
289.885535 -773.606144 39.737429
291.884648 -773.556579 39.704386
293.883760 -773.507014 39.671343
295.882873 -773.457449 39.638300
297.881986 -773.407885 39.605256
299.881098 -773.358320 39.572213
301.880211 -773.308755 39.539170
303.879324 -773.259190 39.506127
305.878436 -773.209626 39.473084
307.877549 -773.160061 39.440041
309.876662 -773.110496 39.406997
311.875774 -773.060931 39.373954
313.874887 -773.011366 39.340911
315.874000 -772.961802 39.307868
317.873112 -772.912237 39.274825
319.872225 -772.862672 39.241781
321.871338 -772.813107 39.208738
323.870450 -772.763543 39.175695
325.869563 -772.713978 39.142652
327.868676 -772.664413 39.109609
329.867788 -772.614848 39.076565
331.866901 -772.565283 39.043522
333.866014 -772.515719 39.010479
335.865126 -772.466154 38.977436
337.864239 -772.416589 38.944393
339.863352 -772.367024 38.911350
341.862464 -772.317460 38.878306
343.861577 -772.267895 38.845263
345.860690 -772.218330 38.812220
347.859802 -772.168765 38.779177
349.858915 -772.119200 38.746134
351.858028 -772.069636 38.713090
353.857140 -772.020071 38.680047
355.856253 -771.970506 38.647004
357.855366 -771.920941 38.613961
359.854478 -771.871377 38.580918
361.853591 -771.821812 38.547875
363.852704 -771.772247 38.514831
365.851816 -771.722682 38.481788
367.850929 -771.673117 38.448745
369.850042 -771.623553 38.415702
371.849154 -771.573988 38.382659
373.848267 -771.524423 38.349615
375.847380 -771.474858 38.316572
377.846492 -771.425294 38.283529
379.845605 -771.375729 38.250486
381.844718 -771.326164 38.217443
383.843831 -771.276599 38.184399
385.842943 -771.227034 38.151356
387.842056 -771.177470 38.118313
389.841169 -771.127905 38.085270
391.840281 -771.078340 38.052227
393.839394 -771.028775 38.019184
395.838507 -770.979211 37.986140
397.837619 -770.929646 37.953097
399.836732 -770.880081 37.920054
401.835845 -770.830516 37.887011
403.834957 -770.780951 37.853968
405.834070 -770.731387 37.820924
407.833183 -770.681822 37.787881
409.832295 -770.632257 37.754838
411.831408 -770.582692 37.721795
413.830521 -770.533128 37.688752
415.829633 -770.483563 37.655709
417.828746 -770.433998 37.622665
419.827859 -770.384433 37.589622
421.826971 -770.334868 37.556579
423.826084 -770.285304 37.523536
425.825197 -770.235739 37.490493
427.824309 -770.186174 37.457449
429.823422 -770.136609 37.424406
431.822535 -770.087045 37.391363
433.821647 -770.037480 37.358320
435.820760 -769.987915 37.325277
437.819873 -769.938350 37.292234
439.818985 -769.888785 37.259190
441.818098 -769.839221 37.226147
443.817211 -769.789656 37.193104
445.816323 -769.740091 37.160061
447.815436 -769.690526 37.127018
449.814549 -769.640962 37.093974
451.813661 -769.591397 37.060931
453.812774 -769.541832 37.027888
455.811887 -769.492267 36.994845
457.810999 -769.442702 36.961802
459.810112 -769.393138 36.928758
461.809225 -769.343573 36.895715
463.808337 -769.294008 36.862672
465.807450 -769.244443 36.829629
467.806563 -769.194879 36.796586
469.805675 -769.145314 36.763543
471.804788 -769.095749 36.730499
473.803901 -769.046184 36.697456
475.803013 -768.996620 36.664413
477.802126 -768.947055 36.631370
479.801239 -768.897490 36.598327
481.800352 -768.847925 36.565283
483.799464 -768.798360 36.532240
485.798577 -768.748796 36.499197
487.797690 -768.699231 36.466154
489.796802 -768.649666 36.433111
491.795915 -768.600101 36.400068
493.795028 -768.550537 36.367024
495.794140 -768.500972 36.333981
497.793253 -768.451407 36.300938
499.792366 -768.401842 36.267895
501.791478 -768.352277 36.234852
503.790591 -768.302713 36.201808
505.789704 -768.253148 36.168765
507.788816 -768.203583 36.135722
509.787929 -768.154018 36.102679
511.787042 -768.104454 36.069636
513.786154 -768.054889 36.036592
